# .PCD v0.7 - Point Cloud Data file format
VERSION 0.7
FIELDS x y z intensity
SIZE 4 4 4 4
TYPE F F F F
COUNT 1 1 1 1
WIDTH 1716
HEIGHT 1
VIEWPOINT 0 0 0 1 0 0 0
POINTS 1716
DATA ascii
nan nan nan 0
-2.17524 70.04703 -5.746423 12
-14.98076 165.2913 -4.895807 11
1.847845 15.3234 -3.713904 5
2.712957 29.89779 -0.5705022 7
5.025584 82.43017 -6.337173 11
7.201807 59.63103 -6.998622 13
2.688271 29.56872 -0.1501009 10
nan nan nan 0
7.933994 65.59425 -6.696095 12
nan nan nan 0
9.303216 76.79652 -6.737613 36
1.953042 31.86707 -1.108081 4
10.02324 82.73778 -6.103058 11
0.6276134 10.25837 -3.642785 4
0.8501232 26.77087 -0.6023349 8
12.06574 99.44613 -5.931855 11
2.75691 44.84461 -5.631534 11
0.8511014 26.80165 -0.2290265 5
nan nan nan 0
3.244842 52.62691 -5.528729 12
3.724071 30.67063 -0.9644254 38
4.086278 66.26707 -6.027276 10
3.712565 30.53148 -0.5308678 20
7.804114 85.12399 -6.409651 15
nan nan nan 0
3.664768 30.13879 -0.1005656 13
8.884933 96.72343 -5.921564 4
0.5735112 17.77253 -2.38354 14
2.776927 30.25039 -1.425567 4
0.5725046 17.74137 -1.890005 11
nan nan nan 0
nan nan nan 0
1.178651 12.8074 -3.687337 4
1.974108 31.6678 -0.6583477 8
0.8817483 26.87937 -2.104317 6
5.233639 56.66101 -6.831223 13
1.990319 31.83823 -0.216901 13
0.8777057 26.75621 -1.724158 8
6.140638 66.34904 -6.870346 37
0.8819307 26.74258 -1.348954 9
6.735697 72.77579 -6.506768 14
0.8836252 26.79393 -0.9723434 3
0.1453141 41.47689 -6.082531 10
-0.4712755 18.05866 -0.2171284 5
-4.590952 82.16302 -5.737426 10
0.1922693 54.9289 -5.953611 12
-0.4724473 18.22496 0.03493187 4
nan nan nan 0
0.2264974 61.65207 -5.813618 11
nan nan nan 0
0.2742501 71.28636 -5.720193 10
nan nan nan 0
0.06952194 17.96671 -1.187815 8
-0.9221408 16.64591 -3.035162 8
nan nan nan 0
nan nan nan 0
-2.863045 51.90738 -5.817978 6
nan nan nan 0
nan nan nan 0
-3.290214 59.83448 -5.861607 5
0.111683 25.47341 -0.6172407 5
nan nan nan 0
0.1151361 25.25459 -0.2552989 12
-2.087697 83.11299 -5.650841 11
-1.477994 17.4992 -3.642131 10
0.1133488 24.86072 0.09098817 6
nan nan nan 0
-4.62199 52.76645 -6.030909 9
nan nan nan 0
-5.241615 59.83458 -5.980995 11
-0.5075441 18.22789 -0.4733776 10
-6.072025 69.44648 -5.961055 10
-1.04914 37.61724 -6.116127 10
nan nan nan 0
-7.144985 81.87503 -5.874203 11
-0.5001135 18.0749 -1.989079 3
-1.029256 17.95157 0.003131993 5
-8.655467 99.17467 -5.720627 8
-1.674712 60.77304 -5.839828 11
nan nan nan 0
-1.930992 70.06416 -5.747241 12
nan nan nan 0
1.900723 15.31203 -3.712732 5
2.817304 29.88814 -0.5705022 13
5.550714 86.09361 -6.62039 35
7.265249 58.44243 -6.861973 35
2.811231 29.76822 -0.1511639 14
6.593279 101.9823 -6.409421 14
8.20841 65.93143 -6.733421 37
nan nan nan 0
9.586027 76.8822 -6.748031 14
1.953362 30.14969 -1.048528 34
10.31384 82.71712 -6.104154 21
0.6637228 10.26082 -3.644461 4
nan nan nan 0
11.99459 96.05534 -5.731988 12
2.89798 44.59708 -5.601661 11
0.8743338 24.80483 -0.211965 5
nan nan nan 0
3.451816 52.97253 -5.566297 10
3.845375 30.77149 -0.9680176 13
4.532988 69.55676 -6.328053 11
3.825953 30.5729 -0.531818 10
8.073316 84.80338 -6.387584 21
nan nan nan 0
3.778028 30.19032 -0.1007811 10
8.958961 93.92951 -5.752333 10
0.6355454 17.77042 -2.38354 14
11.08801 116.2447 -5.484737 16
0.6342522 17.73429 -1.889475 14
14.23354 148.665 -4.927014 20
nan nan nan 0
1.22335 12.8032 -3.687337 4
2.097456 31.85526 -0.6623974 17
2.513384 69.21836 -5.424044 9
5.507244 57.43305 -6.926639 14
2.105728 31.89594 -0.2173434 14
nan nan nan 0
6.391236 66.52525 -6.890871 32
nan nan nan 0
7.004461 72.90552 -6.520519 10
nan nan nan 0
0.2904745 41.53054 -6.090518 11
-0.4081228 18.05519 -0.2170682 5
-0.9376719 17.943 -1.250746 9
0.3832423 54.81853 -5.941751 12
-0.4084897 18.2115 0.03490307 5
-0.9340578 17.93393 -0.9988704 11
0.4416663 61.64593 -5.813148 11
-0.9359972 17.97106 -0.7495829 4
0.5256782 71.63883 -5.748602 10
-0.9322743 17.95996 -0.498203 5
nan nan nan 0
-0.8637744 16.64411 -3.034264 8
nan nan nan 0
nan nan nan 0
nan nan nan 0
nan nan nan 0
nan nan nan 0
-0.9201123 17.90692 -1.75142 10
0.2006797 25.48287 -0.6174833 5
-0.9228197 17.95946 -1.503908 6
0.1992764 24.75408 -0.2502375 10
-1.817645 84.04742 -5.713933 12
-1.415317 17.48473 -3.638061 17
0.1953514 24.26519 0.08880739 5
nan nan nan 0
-4.433607 52.73276 -6.025249 9
-0.6161714 25.09851 -1.002535 4
-5.01812 59.67899 -5.963645 11
nan nan nan 0
-5.828324 69.45235 -5.959776 10
-0.9183069 37.64042 -6.119339 10
-0.9709802 17.97814 -0.2477668 5
-6.854563 81.84481 -5.870281 10
-1.293588 53.37729 -5.881233 11
-0.9660478 17.94506 0.003130248 5
-8.379258 100.04 -5.768835 11
-1.460767 60.70389 -5.832653 12
nan nan nan 0
-1.68665 70.08042 -5.748058 16
-13.74899 164.4655 -4.86838 11
1.955394 15.31495 -3.715076 5
2.921616 29.87812 -0.5705022 6
5.872849 86.39204 -6.644884 45
nan nan nan 0
2.919516 29.80301 -0.1513917 10
6.712316 98.48362 -6.19089 12
8.635081 67.43691 -6.890294 36
7.61122 111.6692 -5.452882 22
9.822648 76.60123 -6.726328 37
2.061319 30.18257 -1.049917 34
10.60442 82.69547 -6.10525 30
0.6988932 10.24904 -3.641109 3
nan nan nan 0
12.8074 99.73076 -5.95403 11
3.053635 44.58669 -5.601661 10
0.9587831 24.74667 -0.2114946 0
15.34755 119.3401 -5.44118 15
3.853804 56.12033 -5.898667 11
3.946388 30.70831 -0.9664558 17
4.90101 71.36369 -6.494044 9
3.93201 30.5544 -0.5317317 8
8.192882 82.9884 -6.252934 12
0.3053403 7.819902 -3.632405 4
3.721138 28.91735 -0.09656949 8
9.31184 94.15096 -5.767856 12
0.6983501 17.7879 -2.386202 8
3.084912 31.2094 -1.471795 6
0.6967381 17.74688 -1.891066 9
3.052606 30.7732 -1.019274 12
2.446558 61.73357 -5.717132 11
1.268034 12.79885 -3.687337 4
2.210023 31.86769 -0.6628128 20
2.734957 68.70612 -5.384598 11
5.780897 58.14954 -7.015496 26
2.224688 31.99813 -0.2180922 25
nan nan nan 0
6.619961 66.46789 -6.887279 10
nan nan nan 0
7.262857 72.92027 -6.524068 19
nan nan nan 0
0.2823624 26.9117 -3.944896 4
-0.3451919 18.06151 -0.2171284 5
-0.875277 17.95114 -1.251093 6
0.5698555 54.36453 -5.89269 11
-0.3450124 18.21781 0.03491267 5
-0.8724231 17.95703 -0.9999834 6
0.6567951 61.63903 -5.812678 11
-0.8725313 17.95924 -0.7489573 3
0.1950758 17.97736 -1.440452 9
-0.868607 17.94313 -0.497648 5
nan nan nan 0
-0.8056703 16.64703 -3.034264 8
nan nan nan 0
nan nan nan 0
-0.8623354 17.94326 -2.007773 5
nan nan nan 0
nan nan nan 0
-0.85951 17.94979 -1.755316 6
0.2907643 25.58197 -0.619909 5
-0.8594066 17.94764 -1.502655 6
0.28217 24.44827 -0.24715 11
-1.517735 83.69414 -5.68951 11
-1.353896 17.48469 -3.637044 17
0.28679 24.84932 0.09095152 4
-0.3770214 17.9261 -0.9659718 11
-4.194407 52.06457 -5.947138 9
nan nan nan 0
-4.791376 59.46801 -5.940841 12
-0.5234765 25.06718 -0.6512355 10
-5.583057 69.43752 -5.956792 11
-0.7874285 37.66806 -6.123353 10
-0.9064482 17.94647 -0.2472843 5
-6.512955 81.17225 -5.820354 12
-1.107568 53.39639 -5.882876 11
-0.903402 17.94833 0.003130248 5
-7.980069 99.44665 -5.732966 11
-1.241687 60.36029 -5.799168 11
nan nan nan 0
-1.450326 70.48945 -5.781173 10
-13.15646 164.2833 -4.861597 11
2.008841 15.30803 -3.715076 5
nan nan nan 0
nan nan nan 0
7.744286 58.93193 -6.925666 24
nan nan nan 0
6.714961 93.70118 -5.891583 14
8.92367 67.81078 -6.931656 37
nan nan nan 0
10.0711 76.42326 -6.713741 27
2.161291 30.10043 -1.047312 0
10.76071 81.65433 -6.03109 10
0.7350025 10.25124 -3.642785 3
nan nan nan 0
13.12605 99.46276 -5.940725 11
3.207115 44.54607 -5.597927 10
1.049381 24.84308 -0.2123499 12
15.51726 117.419 -5.355999 15
4.219431 58.45747 -6.145989 10
4.049627 30.66463 -0.9655187 4
5.201368 72.05637 -6.558722 14
4.039297 30.54544 -0.531818 6
3.131218 30.64003 -2.307729 4
0.332635 7.818789 -3.632405 4
3.814839 28.84967 -0.09638709 28
10.03974 98.01519 -6.006788 12
1.94184 45.39691 -6.098294 17
3.151074 30.78109 -1.452084 17
nan nan nan 0
3.15694 30.73253 -1.018285 8
2.601741 60.32694 -5.587595 12
1.314177 12.80869 -3.691482 4
2.324884 31.90964 -0.6638512 5
2.97175 68.62643 -5.37913 10
6.01639 58.44505 -7.053662 9
2.334181 31.96024 -0.217888 14
3.747613 86.54015 -5.584046 11
6.848365 66.40974 -6.883687 37
nan nan nan 0
7.519907 72.91924 -6.526287 34
nan nan nan 0
0.2508683 17.92768 -2.6263 4
-0.2851276 18.25256 -0.2194165 5
-0.8135156 17.97402 -1.252485 5
nan nan nan 0
-0.2815736 18.2289 0.03493187 5
-0.8099618 17.96495 -1.000262 5
0.2542399 17.9448 -1.689885 8
-0.8107396 17.98214 -0.7497914 3
0.257542 17.95663 -1.438851 4
-0.8070934 17.97102 -0.4983417 5
0.2570904 17.92509 -1.185171 10
-0.7471136 16.63991 -3.03247 9
nan nan nan 0
0.2631985 17.91484 -0.933957 6
-0.8008062 17.97099 -2.010556 5
nan nan nan 0
0.266567 17.93109 -0.6844046 5
-0.7977338 17.97256 -1.757264 5
0.2663862 17.9189 -0.4339727 5
-0.7976392 17.97044 -1.504326 5
0.2695788 17.9232 -0.1810983 5
-1.225944 83.72386 -5.691206 12
-1.292131 17.47954 -3.63501 10
0.2696659 17.929 0.06558845 4
-0.3157655 18.00218 -0.9700146 11
-4.022575 52.20767 -5.961854 10
nan nan nan 0
-4.584912 59.49925 -5.942328 11
-0.4364087 25.09384 -0.6518855 7
-5.317327 69.15359 -5.930793 10
-0.6559377 37.67057 -6.123353 10
-0.844269 17.95951 -0.2474221 5
-6.231099 81.21439 -5.821781 11
-0.9214309 53.41484 -5.88452 11
-0.8412145 17.96136 0.003131993 4
-7.65352 99.74265 -5.748462 11
-0.3070776 18.0455 -1.731188 3
nan nan nan 0
-1.184234 69.32318 -5.685099 12
nan nan nan 0
2.062264 15.30092 -3.715076 5
2.445166 23.32902 -0.4456157 3
6.135723 81.81506 -6.295838 6
7.916056 58.65353 -6.896136 31
nan nan nan 0
6.890464 91.66183 -5.764785 8
nan nan nan 0
nan nan nan 0
10.17474 75.18324 -6.607835 15
2.263719 30.05783 -1.046097 6
11.01891 81.41862 -6.016477 24
0.7707814 10.24861 -3.642785 3
nan nan nan 0
13.48657 99.51526 -5.946638 12
3.363337 44.5445 -5.599172 11
1.136322 24.84426 -0.2123926 14
15.93913 117.4532 -5.360066 11
4.764362 62.94471 -6.619761 11
4.166725 30.72459 -0.9678614 20
nan nan nan 0
nan nan nan 0
3.241825 30.66363 -2.310347 13
0.359717 7.813054 -3.630292 3
3.912827 28.81636 -0.09632077 9
3.254994 30.73682 -1.882847 10
2.093878 45.25125 -6.079658 11
3.254289 30.73017 -1.450207 20
2.505783 54.15074 -5.779819 10
3.24623 30.55237 -1.012678 11
2.799086 60.03401 -5.561319 12
1.358372 12.79925 -3.6901 4
2.256088 29.54371 -0.6147347 8
3.218974 68.77995 -5.392019 10
nan nan nan 0
nan nan nan 0
4.116864 87.962 -5.676722 11
7.002043 65.65349 -6.807748 22
nan nan nan 0
7.767528 72.82817 -6.520519 33
nan nan nan 0
0.3132734 17.9168 -2.624848 10
-0.2214736 18.25845 -0.2194768 8
-0.7507697 17.97675 -1.252485 3
0.3132167 17.91355 -1.93925 5
-0.2178809 18.22478 0.03492227 5
-0.7480801 17.98762 -1.001375 3
0.316351 17.91394 -1.687067 5
-0.7490068 18.00982 -0.7508339 3
0.3193335 17.90579 -1.43485 5
-0.7456033 18.00369 -0.4991741 4
0.3193927 17.90912 -1.184179 6
-0.689025 16.64242 -3.03247 10
nan nan nan 0
0.3256407 17.90882 -0.9336962 6
-2.184882 53.07922 -5.945412 9
nan nan nan 0
0.3290649 17.92505 -0.6842135 5
-2.469777 60.24749 -5.898135 8
0.32875 17.90787 -0.4337301 9
-2.858024 69.70809 -5.843196 10
0.3320484 17.91715 -0.1810476 8
-0.9331287 83.67775 -5.687814 12
-1.230763 17.47906 -3.633992 13
0.3322482 17.92795 0.06558845 8
nan nan nan 0
-3.845417 52.29076 -5.969779 10
nan nan nan 0
-4.378654 59.53475 -5.944311 11
nan nan nan 0
-5.050364 68.82393 -5.900958 10
-0.5243011 37.66277 -6.121747 9
nan nan nan 0
-5.949391 81.26051 -5.823564 12
-0.7430586 54.00412 -5.949161 11
nan nan nan 0
-7.298012 99.66919 -5.742723 11
-0.2432722 17.98674 -1.725447 10
nan nan nan 0
-0.9419044 69.30198 -5.683055 11
-12.46752 170.6416 -5.047101 11
2.115661 15.29363 -3.715076 5
2.527124 23.32531 -0.4457108 3
6.539527 83.29906 -6.411804 37
7.69875 55.58046 -6.537722 11
nan nan nan 0
7.196287 91.45812 -5.753514 5
9.446769 68.10651 -6.968479 31
2.36945 30.12726 -1.470976 10
10.38091 74.74271 -6.572244 23
2.359982 29.94015 -1.042277 6
11.24609 80.9697 -5.986156 38
0.806551 10.24585 -3.642785 3
7.898029 160.3511 -3.61446 16
13.87032 99.72959 -5.962308 14
3.576279 45.2595 -5.690655 10
1.22353 24.85013 -0.2124781 9
16.06028 115.324 -5.265396 11
5.186317 65.48064 -6.888475 11
4.27188 30.69501 -0.9673929 9
5.849015 73.84503 -6.725167 38
26.0643 186.9042 -3.260453 17
3.355886 30.71656 -2.315209 9
0.3869874 7.81175 -3.630292 3
4.327649 31.0557 -0.1038653 12
3.351399 30.62605 -1.87676 8
2.242459 45.05559 -6.054365 10
3.357188 30.6789 -1.448329 20
2.613459 52.50797 -5.6053 11
3.354495 30.55576 -1.013173 6
3.004887 59.94929 -5.554404 12
1.401991 12.78487 -3.687337 4
2.341278 29.31142 -0.6100619 10
3.593034 71.43176 -5.600966 10
6.272214 57.01995 -6.886683 10
2.375591 29.67549 -0.2024023 9
4.507116 89.60155 -5.783556 5
7.223001 65.55449 -6.800052 12
5.989935 118.6638 -5.996304 17
8.021152 72.79566 -6.520076 9
nan nan nan 0
0.37602 17.92549 -2.6263 5
-0.1576075 18.24411 -0.2192961 8
-3.140609 81.82194 -5.708897 7
0.3733504 17.79804 -1.92685 6
-0.154306 18.23043 0.03493187 6
nan nan nan 0
0.3787752 17.90775 -1.686597 5
-0.6861363 18.01233 -0.7508339 3
0.3811978 17.87468 -1.432449 5
nan nan nan 0
0.3815866 17.89293 -1.183188 6
-0.6307408 16.63981 -3.031572 11
nan nan nan 0
0.3879361 17.89758 -0.9331746 6
-2.009701 53.35466 -5.975462 10
nan nan nan 0
0.391197 17.90381 -0.6834492 5
-2.253672 60.10159 -5.883037 11
0.3908219 17.88662 -0.4332449 4
-2.608325 69.54836 -5.829001 9
0.3948088 17.92588 -0.1811489 4
-0.6404201 83.60068 -5.682387 6
-1.169742 17.48325 -3.633992 17
0.3943866 17.90668 0.06551515 4
nan nan nan 0
-3.666339 52.35342 -5.975439 10
nan nan nan 0
-4.133584 59.01861 -5.891268 12
nan nan nan 0
-4.808354 68.8163 -5.898827 12
-0.3927269 37.6545 -6.120142 11
nan nan nan 0
-5.66605 81.28576 -5.82392 13
-0.5547493 54.02626 -5.951352 11
nan nan nan 0
-6.871906 98.57363 -5.678159 12
-0.1806868 18.00739 -1.727361 3
nan nan nan 0
-0.6997879 69.28492 -5.68142 6
-11.86173 170.5396 -5.042824 11
2.168349 15.28134 -3.713904 5
nan nan nan 0
6.727127 82.01866 -6.314975 30
8.2862 58.32149 -6.863711 29
3.444026 30.72825 -0.1563267 8
7.746513 94.24242 -5.930406 13
3.784175 26.61562 -2.722322 11
2.470507 30.06903 -1.468542 6
3.838845 26.96601 -2.370296 4
2.49279 30.27535 -1.054257 4
11.49207 80.67325 -5.967159 11
0.841924 10.23828 -3.641109 3
8.400562 159.2393 -3.590033 29
14.08934 98.77634 -5.908202 14
3.872633 46.92286 -5.901628 11
1.315797 24.95056 -0.2133761 4
16.45992 115.2475 -5.264492 15
5.449709 65.88337 -6.932826 22
nan nan nan 0
6.066096 73.33288 -6.680389 23
26.60047 186.0004 -3.246284 28
3.43848 30.48666 -2.298752 24
0.4142531 7.810352 -3.630292 4
nan nan nan 0
3.460526 30.634 -1.877977 12
2.379152 44.66151 -6.002447 10
3.486138 30.86055 -1.457481 6
2.766309 51.92758 -5.544298 11
3.457193 30.5091 -1.012018 3
3.209598 59.85391 -5.546567 11
1.44661 12.7799 -3.687337 4
nan nan nan 0
4.064386 75.54514 -5.924737 12
6.499226 57.24434 -6.916501 13
2.469581 29.55242 -0.2016195 23
nan nan nan 0
7.454032 65.54865 -6.802104 22
6.405458 118.6671 -5.997564 11
8.274646 72.76228 -6.519633 10
6.912525 128.0602 -4.656469 9
0.4391937 17.9488 -2.62993 4
-0.09394884 18.24955 -0.2193563 8
-2.872037 82.32092 -5.742992 12
0.4369323 17.85626 -1.93332 4
-0.0897579 18.05086 0.0345863 6
nan nan nan 0
0.6585777 26.73442 -2.519798 5
-0.6234308 18.0196 -0.7510425 11
0.6636805 26.75193 -2.145473 4
nan nan nan 0
0.6631219 26.7294 -1.768833 5
-0.5723132 16.63207 -3.029777 11
nan nan nan 0
0.6720036 26.71132 -1.393763 5
-0.6142735 18.02805 -2.01612 5
nan nan nan 0
0.6774715 26.74304 -1.021639 6
-2.035398 59.86043 -5.858685 9
0.6782725 26.77468 -0.6490184 5
-2.356215 69.28316 -5.806037 10
0.6814552 26.71609 -0.2701796 5
-0.348282 83.52758 -5.677299 11
-1.107775 17.47257 -3.63094 8
0.619572 24.28808 0.08891734 4
nan nan nan 0
-3.444287 51.77603 -5.908083 11
nan nan nan 0
-3.916305 58.86389 -5.874413 12
nan nan nan 0
-4.580988 69.02653 -5.915449 11
-0.2615614 37.69512 -6.126565 10
nan nan nan 0
-5.362495 81.00645 -5.802523 11
-0.3663281 54.05272 -5.954091 11
nan nan nan 0
-6.505341 98.25832 -5.658646 11
nan nan nan 0
nan nan nan 0
-0.459223 69.48129 -5.697364 11
nan nan nan 0
2.22378 15.28811 -3.717421 5
nan nan nan 0
6.966638 81.44827 -6.272875 11
nan nan nan 0
3.507017 30.3336 -0.154378 23
8.063498 94.07559 -5.921639 17
3.884957 26.65639 -2.72787 13
nan nan nan 0
3.938709 26.99187 -2.373769 20
2.601022 30.29634 -1.055299 5
nan nan nan 0
0.8776571 10.23528 -3.641109 3
1.782192 31.68803 -0.7138867 3
nan nan nan 0
4.293821 49.89947 -6.278142 10
nan nan nan 0
16.58061 113.2668 -5.1766 23
5.693755 66.02744 -6.950044 36
nan nan nan 0
6.23688 72.324 -6.590383 34
27.18939 185.4959 -3.239114 28
3.540842 30.4398 -2.296134 8
0.4415138 7.808858 -3.630292 3
nan nan nan 0
3.56397 30.59199 -1.876151 11
2.520145 44.39071 -5.96717 11
nan nan nan 0
2.944452 51.86301 -5.538463 11
nan nan nan 0
3.516485 61.5572 -5.705607 10
1.491212 12.77477 -3.687337 4
16.62301 191.1734 -3.985392 14
nan nan nan 0
6.480723 55.35754 -6.69108 30
2.572289 29.53864 -0.2015855 7
nan nan nan 0
7.690907 65.59138 -6.809288 14
6.537361 113.7334 -5.749252 19
8.667829 73.92007 -6.626097 11
nan nan nan 0
nan nan nan 0
nan nan nan 0
-2.579966 82.18087 -5.732554 12
0.4971777 17.7801 -1.925233 11
-0.02667742 18.00606 0.0344999 10
nan nan nan 0
0.7524537 26.75187 -2.521677 5
-0.5614631 18.05163 -0.7522935 10
0.7574809 26.7644 -2.146673 5
nan nan nan 0
0.7572672 26.75684 -1.770816 5
-0.5144058 16.63889 -3.030675 10
nan nan nan 0
0.7663827 26.74874 -1.39585 3
-0.5502719 17.99531 -2.012225 6
nan nan nan 0
0.7715374 26.76548 -1.022594 4
-1.821571 59.708 -5.843099 11
0.7717295 26.77215 -0.6490184 7
-2.106293 69.02701 -5.783908 10
0.7751421 26.72854 -0.2703314 4
nan nan nan 0
-1.046778 17.47633 -3.63094 12
0.7015976 24.19081 0.08856915 6
-0.374658 102.656 -5.539783 6
-3.249145 51.55967 -5.882046 11
nan nan nan 0
-3.710495 58.87224 -5.873918 12
nan nan nan 0
-4.295281 68.3311 -5.854501 10
-0.129876 37.66619 -6.121747 5
-0.5962505 18.05449 -0.2485941 5
-5.080634 81.03961 -5.803593 13
-0.1771688 53.90954 -5.938204 12
nan nan nan 0
-6.16044 98.25055 -5.656925 12
-0.189066 60.6913 -5.829783 11
nan nan nan 0
-0.2198008 70.47412 -5.778719 11
nan nan nan 0
2.276414 15.27544 -3.716249 5
nan nan nan 0
7.255326 81.47313 -6.276702 11
4.015232 26.92406 -3.169559 20
3.600447 30.21691 -0.1538465 12
8.622949 96.63647 -6.084755 8
3.972099 26.60331 -2.723835 32
10.34107 115.8876 -5.668272 16
nan nan nan 0
13.38447 149.6933 -5.220761 8
3.97833 26.61323 -1.968717 6
0.9133795 10.23215 -3.641109 3
1.893985 31.70158 -0.714337 5
14.88358 99.3765 -5.950186 11
4.528189 50.55621 -6.362781 21
1.908116 31.93803 -0.2733267 11
17.9531 119.7236 -5.474619 27
5.925088 66.01707 -6.951088 31
22.44591 149.6784 -4.728886 30
6.529819 72.75311 -6.631542 19
27.78995 185.0884 -3.233671 23
9.63156 80.31843 -6.065549 13
0.4687691 7.80727 -3.630292 4
nan nan nan 0
11.53155 96.01644 -5.895692 8
2.623492 43.52589 -5.85202 11
3.690776 30.7462 -1.453257 3
3.123974 51.8276 -5.535811 12
3.719714 30.89602 -1.025705 29
3.902499 64.36727 -5.967446 10
1.535795 12.76949 -3.687337 4
2.688634 29.73337 -0.6194075 29
nan nan nan 0
6.692353 55.48737 -6.709567 11
2.676736 29.54442 -0.2016876 17
nan nan nan 0
7.928169 65.63326 -6.816471 10
6.934324 113.7099 -5.749252 17
9.121769 75.51111 -6.771599 12
nan nan nan 0
1.303049 41.44677 -6.081079 13
0.04549948 25.14925 -0.3024504 5
-2.274563 81.52625 -5.686283 12
0.5581458 17.74347 -1.921459 9
nan nan nan 0
-2.772075 99.96247 -5.571415 8
0.8475601 26.80381 -2.526843 5
nan nan nan 0
0.8509015 26.76159 -2.146673 5
nan nan nan 0
0.8506614 26.75403 -1.770816 5
-0.4563221 16.64058 -3.030675 10
nan nan nan 0
0.8597485 26.7459 -1.39585 3
-0.4874532 17.99713 -2.012225 3
nan nan nan 0
0.8652842 26.77261 -1.022977 2
-1.622023 60.04231 -5.875244 11
0.8640475 26.73432 -0.6481694 10
-1.866948 69.09371 -5.788918 10
0.869898 26.77065 -0.2707869 4
0.05178727 17.96963 -1.219447 23
-0.9860441 17.48477 -3.631958 20
nan nan nan 0
-0.01634646 102.8115 -5.548139 14
-3.07033 51.59053 -5.88431 9
nan nan nan 0
-3.471824 58.32857 -5.818396 9
0.001605669 25.52249 -0.6629366 7
-4.064121 68.47002 -5.865156 7
0.001606458 18.02463 -2.926396 6
-0.5330768 18.05147 -0.2485252 5
-4.783862 80.82287 -5.786832 6
0.01101432 53.92474 -5.939848 11
-0.5349903 18.2232 0.003175627 4
nan nan nan 0
0.02279601 60.71648 -5.832175 11
-1.063334 18.06762 -0.7854885 3
0.02611248 70.22031 -5.75787 11
-1.057099 17.96206 -0.5298225 4
2.329722 15.26741 -3.716249 5
3.751112 30.61654 -0.5861962 17
7.544273 81.49694 -6.280529 11
4.106939 26.89515 -3.167822 31
3.688841 30.06521 -0.1531379 13
8.713155 93.94247 -5.916943 13
4.065691 26.5942 -2.72434 31
10.77643 116.184 -5.684578 9
4.013905 26.22516 -2.308662 25
nan nan nan 0
4.068183 26.57946 -1.967255 10
0.9490909 10.2289 -3.641109 3
2.017889 31.9043 -0.7190647 12
nan nan nan 0
4.712916 50.62901 -6.373982 6
2.019904 31.93616 -0.2733694 17
18.59606 121.1265 -5.541725 20
6.156418 66.00589 -6.952131 34
nan nan nan 0
6.804549 72.95299 -6.651895 10
28.39104 184.6987 -3.228575 26
9.924698 80.38824 -6.073403 24
0.4954433 7.796541 -3.626066 4
29.2544 190.3146 -0.6384298 23
11.86235 95.94094 -5.893561 11
2.72872 42.78454 -5.75351 10
nan nan nan 0
3.315945 51.99004 -5.554377 12
3.825079 30.86301 -1.025046 11
4.355657 67.91567 -6.297972 10
1.580359 12.76405 -3.687337 4
2.802699 29.8333 -0.621692 9
5.012986 77.95083 -6.117281 7
nan nan nan 0
2.782193 29.55978 -0.2018578 3
nan nan nan 0
8.18178 65.80261 -6.836995 31
7.334417 113.7348 -5.751773 16
8.565277 68.8859 -6.179832 7
1.947339 30.20351 -1.097924 29
1.450998 41.5359 -6.094875 10
0.1338624 25.25893 -0.3037751 4
-2.011052 82.39634 -5.746471 13
0.6199053 17.73645 -1.92092 10
0.1355754 24.7607 0.04746856 5
-2.418522 99.7819 -5.560843 7
0.9451332 26.9151 -2.537646 5
nan nan nan 0
0.9467711 26.82819 -2.152275 4
-0.4365784 18.23381 -0.5052785 4
0.9487933 26.88552 -1.779739 4
-0.3984698 16.65191 -3.03247 10
-0.9557312 17.94836 -0.2786611 6
0.9557701 26.81759 -1.399762 4
-1.248755 52.71186 -5.900894 10
-0.9563792 17.96049 -0.0281983 5
nan nan nan 0
-1.408558 59.88343 -5.859171 9
nan nan nan 0
-1.627046 69.1546 -5.793511 10
0.889115 24.70389 -0.2498832 6
0.1145127 17.96934 -1.219447 5
-0.924226 17.47344 -3.628905 11
0.8857397 24.61005 0.09012686 36
0.3429134 102.9257 -5.554338 14
nan nan nan 0
nan nan nan 0
-1.00346 17.95906 -1.788598 9
0.09083536 25.56232 -0.6639767 5
-0.9957821 17.87796 -1.528836 11
0.06433467 17.97023 -2.917565 3
-0.4701929 18.05821 -0.2485941 5
-0.9937527 17.89771 -1.279187 11
0.1989188 53.83492 -5.929987 11
-0.4726764 18.27494 0.003184353 4
-0.9982606 17.9786 -1.033019 11
0.2348315 60.74091 -5.834567 12
-0.996657 18.00638 -0.7826645 4
0.07074336 18.0056 -1.474217 8
-0.9943935 17.96564 -0.5298225 4
2.383001 15.25918 -3.716249 5
3.861715 30.63302 -0.586767 17
7.9923 83.17223 -6.411804 5
4.228425 27.05729 -3.188667 31
nan nan nan 0
9.040065 93.90155 -5.916317 13
4.203134 26.86489 -2.753596 29
11.18815 116.2103 -5.687742 7
4.113909 26.26512 -2.313437 37
14.33227 148.5914 -5.185688 13
4.158621 26.55032 -1.966159 12
0.9847907 10.22553 -3.641109 3
2.12891 31.89208 -0.7189522 11
15.16604 96.65188 -5.79319 15
5.278554 54.63681 -6.881188 13
2.131703 31.93391 -0.2734122 9
18.76135 119.4226 -5.466712 10
6.251649 64.58823 -6.804991 30
nan nan nan 0
7.059641 72.93375 -6.652348 7
28.98975 184.3071 -3.223478 26
10.21907 80.46191 -6.081632 30
0.5229589 7.799285 -3.628179 3
29.89912 190.0878 -0.6380153 23
12.19528 95.88409 -5.892648 15
2.838454 42.18639 -5.674303 11
13.97058 109.8391 -5.200562 7
3.572849 53.09924 -5.674259 10
3.931523 30.83956 -1.024716 5
4.684435 69.25614 -6.423821 12
1.624905 12.75846 -3.687337 4
nan nan nan 0
nan nan nan 0
7.138693 55.90217 -6.765624 35
2.886332 29.55984 -0.2019258 14
6.355155 93.71085 -6.055149 8
8.401325 65.69472 -6.828785 31
nan nan nan 0
9.632278 75.31715 -6.760066 14
2.15818 31.74692 -1.154363 23
1.604522 41.75304 -6.12755 11
0.2184977 24.85335 -0.2988979 4
-1.727601 82.60233 -5.760387 7
0.68105 17.71431 -1.918763 11
0.2214714 24.70007 0.04735337 5
-2.07124 99.83964 -5.563625 7
2.393534 62.00952 -5.851662 11
nan nan nan 0
2.648808 68.31496 -5.48572 7
-0.3729278 18.23523 -0.5052785 4
nan nan nan 0
-0.34024 16.64828 -3.031572 13
-0.8945705 17.98155 -0.279127 6
nan nan nan 0
-1.062133 52.58674 -5.886425 10
-0.8929312 17.94873 -0.02817474 5
nan nan nan 0
-1.195622 59.69396 -5.840177 11
nan nan nan 0
-1.385642 69.15986 -5.793511 10
0.9771167 24.74559 -0.2503387 4
0.1772854 17.97382 -1.219787 5
-0.8624991 17.46189 -3.625853 11
0.9706535 24.58182 0.09003522 12
0.7028008 103.0138 -5.559189 14
-0.9393433 17.93541 -2.042188 5
nan nan nan 0
-0.9399815 17.94755 -1.787111 6
0.1806222 25.64182 -0.6660569 4
-0.9372812 17.95596 -1.535229 6
nan nan nan 0
nan nan nan 0
-0.9343936 17.96084 -1.283466 8
0.3857696 53.6848 -5.913553 9
-0.5754778 25.6746 0.004475897 3
-0.9349767 17.972 -1.032445 8
0.4471108 60.77456 -5.837915 8
-0.9309403 17.95488 -0.780275 4
0.133375 17.97535 -1.471765 5
-0.930896 17.95403 -0.5293801 4
2.436251 15.25077 -3.716249 5
3.969907 30.62927 -0.5869572 8
3.05512 30.67876 -2.364097 8
4.351878 27.22382 -3.21009 28
3.76019 28.97269 -0.1476967 28
nan nan nan 0
4.314193 26.95812 -2.764693 14
3.063854 30.71208 -1.502372 38
4.230015 26.40307 -2.326892 20
3.068516 30.70457 -1.070925 11
4.248904 26.52087 -1.965063 13
1.02001 10.21734 -3.639434 4
2.241973 31.90938 -0.719515 10
15.53893 96.82011 -5.806495 13
5.460339 54.52919 -6.869986 33
2.245614 31.96118 -0.2737115 23
nan nan nan 0
6.452738 64.32355 -6.779424 13
nan nan nan 0
7.313687 72.9037 -6.651895 9
29.60831 184.0518 -3.220799 28
10.42756 79.87203 -6.039741 20
0.5504995 7.801933 -3.630292 4
30.63554 190.4365 -0.6395407 23
12.52861 95.83105 -5.89204 12
2.977995 42.06747 -5.659659 10
nan nan nan 0
3.982908 56.26043 -6.013749 10
4.038499 30.82069 -1.024551 5
5.097537 71.64795 -6.647399 34
1.66943 12.75271 -3.687337 4
nan nan nan 0
5.875188 82.37391 -6.46761 20
7.262052 55.33056 -6.699429 21
2.984965 29.50482 -0.2016195 4
6.676193 93.60349 -6.049678 46
8.57354 65.23106 -6.783633 5
nan nan nan 0
9.89188 75.25838 -6.757847 14
2.254373 31.53485 -1.146922 12
1.749429 41.72741 -6.124645 10
0.3015249 24.54749 -0.2952248 6
-1.425849 81.83984 -5.706809 12
0.7432966 17.72176 -1.919842 5
0.3093622 24.83414 0.04761255 4
-0.3090702 18.04046 -1.0036 4
2.571458 61.08567 -5.765242 10
nan nan nan 0
2.843693 67.27454 -5.402894 10
-0.3092727 18.23642 -0.5052785 4
nan nan nan 0
-0.2820405 16.64445 -3.030675 17
-0.8299417 17.94461 -0.2785057 6
nan nan nan 0
-0.8788143 52.60503 -5.888095 10
-0.830273 17.95174 -0.02817474 5
nan nan nan 0
-0.9821287 59.38928 -5.80998 9
nan nan nan 0
-1.144303 69.16925 -5.793929 10
1.062631 24.72205 -0.2501363 5
0.2398261 17.95812 -1.218769 5
-0.8015404 17.46479 -3.625853 12
1.056454 24.57828 0.09003522 28
0.1861854 17.9241 -0.9657022 11
-0.8772184 17.9485 -2.04332 6
0.1859462 17.90087 -0.7144408 5
-0.8773271 17.95072 -1.787111 5
0.1894708 17.93906 -0.4657068 4
-0.8733807 17.93424 -1.533098 5
0.1891678 17.91012 -2.90793 4
-0.4824176 25.26404 -0.3479352 4
-0.8709646 17.94904 -1.282396 5
nan nan nan 0
-0.4860435 25.68645 0.004477642 3
-0.8712652 17.95521 -1.031297 5
0.1960941 17.97239 -1.724012 9
-0.8682604 17.95802 -0.780275 5
0.1961199 17.97477 -1.471765 5
-0.8677345 17.94719 -0.5290852 5
2.489471 15.24217 -3.716249 5
4.078119 30.62513 -0.5871474 10
3.16219 30.66791 -2.364097 9
4.45169 27.23787 -3.213565 28
3.859317 28.94452 -0.1476208 25
3.178321 30.77165 -1.938606 0
4.29733 26.26544 -2.695084 26
3.17258 30.7161 -1.503102 31
4.311677 26.32424 -2.321249 28
3.163842 30.57935 -1.066932 20
4.322899 26.39269 -1.956661 29
1.055669 10.21372 -3.639434 3
2.162069 29.30907 -0.6609812 6
4.325042 26.37692 -1.581197 9
5.638368 54.39137 -6.855049 35
2.357533 31.95813 -0.2737543 15
4.321465 26.32639 -1.205185 24
6.679286 64.32043 -6.781511 13
4.330254 26.37988 -0.8343256 6
7.565552 72.85297 -6.649634 34
4.339572 26.40778 -0.461842 35
10.89324 81.22871 -6.145216 34
0.5777299 7.799963 -3.630292 4
nan nan nan 0
12.2319 91.08773 -5.602886 13
3.124452 42.05188 -5.658994 10
nan nan nan 0
4.392234 59.11197 -6.320351 9
4.146059 30.8064 -1.024551 10
5.363915 71.84818 -6.667682 35
1.713935 12.74681 -3.687337 4
nan nan nan 0
6.160086 82.31811 -6.464877 33
7.4578 55.32456 -6.701814 21
3.188471 30.45395 -0.2081882 10
6.828615 91.25098 -5.89908 14
8.789871 65.11694 -6.77491 31
2.256153 30.08329 -1.521134 4
nan nan nan 0
2.250434 30.00706 -1.091573 9
1.90046 41.83965 -6.142071 11
0.2831571 17.92258 -0.2154425 5
-1.143578 82.0887 -5.723856 11
2.483039 54.66906 -5.931507 11
0.2863846 17.92879 0.03435591 5
-0.2451317 17.97154 -0.9997052 12
2.717348 59.59942 -5.625749 11
nan nan nan 0
3.072129 67.1248 -5.391691 10
-0.2454778 18.22739 -0.5050011 4
nan nan nan 0
-0.2239388 16.64533 -3.030675 14
-0.767942 17.96238 -0.2787387 5
nan nan nan 0
-0.6953809 52.62268 -5.889764 10
-0.7680339 17.96452 -0.02819045 4
nan nan nan 0
-0.2332643 18.02358 -1.760674 9
nan nan nan 0
nan nan nan 0
1.152169 24.78811 -0.2508449 6
0.3016744 17.9073 -1.215377 5
-0.740572 17.46749 -3.625853 23
nan nan nan 0
0.2488199 17.92833 -0.9659718 6
-0.815466 17.97131 -2.045585 1
0.2488441 17.93008 -0.7156395 6
-0.8164746 17.99343 -1.791076 1
0.2518793 17.9233 -0.4653168 5
-3.101181 68.37575 -5.852796 9
0.2516158 17.90442 -2.907128 6
-0.3946193 25.29057 -0.3482799 4
-0.8094324 17.97689 -1.28418 5
0.254905 17.916 -1.971002 5
-0.3965334 25.69799 0.004479387 3
-0.8090357 17.96811 -1.031871 5
0.2584721 17.94671 -1.72162 5
-0.8066941 17.98589 -0.7813611 5
0.2580066 17.91419 -1.466859 5
-0.8057566 17.96508 -0.5295275 6
2.543463 15.23818 -3.717421 5
4.184996 30.61071 -0.5871474 6
3.270808 30.67155 -2.365245 12
4.427191 26.50699 -3.129027 21
3.951508 28.86647 -0.1472918 6
3.279351 30.70083 -1.934849 4
4.395555 26.28953 -2.699119 31
3.281903 30.7247 -1.504076 17
4.391195 26.23534 -2.314739 34
3.266841 30.53334 -1.065717 10
4.406761 26.32826 -1.953008 39
1.091816 10.21465 -3.641109 3
2.266289 29.32626 -0.6615441 10
4.412135 26.33213 -1.579423 33
nan nan nan 0
nan nan nan 0
4.424913 26.3801 -1.208348 11
7.039703 65.56245 -6.915085 25
4.429758 26.40896 -0.8357312 6
7.814492 72.7766 -6.645111 12
4.444155 26.46643 -0.4631379 17
11.14066 80.9284 -6.125392 42
0.6049534 7.797899 -3.630292 4
4.416618 26.30258 -0.08832859 13
12.55114 91.05436 -5.603495 15
3.271606 42.04566 -5.659659 10
nan nan nan 0
4.896736 62.92788 -6.730392 10
nan nan nan 0
nan nan nan 0
1.758419 12.74074 -3.687337 4
2.527487 23.39491 -0.4880495 5
6.444667 82.26131 -6.462142 38
7.654277 55.32278 -6.704796 29
3.2996 30.48737 -0.2084945 10
7.168145 91.49519 -5.916457 10
nan nan nan 0
2.355285 30.00056 -1.517353 12
3.690593 26.65035 -2.393238 5
2.357903 30.03389 -1.092843 8
2.04408 41.78335 -6.13481 13
0.3456208 17.91648 -0.2153823 8
-0.8574461 82.1321 -5.72664 12
2.60295 53.2103 -5.774081 9
0.3490629 17.93268 0.03436551 12
-0.1827063 18.00224 -1.001375 4
2.894379 58.95813 -5.5661 10
nan nan nan 0
3.30127 67.00913 -5.383287 9
-0.1818508 18.22813 -0.5050011 5
4.234179 85.94839 -5.698141 10
-0.1657846 16.64109 -3.029777 20
nan nan nan 0
nan nan nan 0
-0.5190712 53.38003 -5.974349 11
nan nan nan 0
nan nan nan 0
-0.1702055 18.00936 -1.759213 4
nan nan nan 0
-0.6534466 68.34849 -5.724621 11
1.238688 24.78394 -0.2508449 5
0.3642817 17.91112 -1.215716 6
-0.679212 17.46018 -3.623818 17
1.249221 24.99478 0.09159293 10
0.3110549 17.90739 -0.9648936 6
-0.7546095 18.01871 -2.050679 3
0.3112576 17.91912 -0.7152399 6
-2.495374 59.37945 -5.918037 11
0.3143545 17.91731 -0.4651867 4
-2.851221 68.11738 -5.82978 10
0.3141984 17.90837 -2.90793 5
-0.3065807 25.31179 -0.3485557 3
-3.37154 80.86913 -5.785049 7
0.317442 17.915 -1.971002 5
-0.2143412 18.01977 0.003138974 3
-4.086914 98.0089 -5.636838 7
0.3206732 17.92081 -1.719229 5
nan nan nan 0
0.3204485 17.90819 -1.46645 5
nan nan nan 0
2.594184 15.21484 -3.713904 5
4.291821 30.59592 -0.5871474 4
3.380037 30.67977 -2.366776 8
4.521363 26.50117 -3.130185 32
4.320151 30.75875 -0.1570353 5
3.379926 30.62967 -1.931092 17
4.488135 26.27893 -2.699624 31
3.413793 30.93644 -1.515028 8
4.483588 26.22476 -2.315173 30
3.377247 30.55651 -1.066932 3
4.499479 26.31763 -1.953373 14
1.127983 10.21546 -3.642785 3
2.368241 29.31319 -0.6614315 13
4.506552 26.33133 -1.58031 13
6.009213 54.27179 -6.845092 30
2.388084 29.55875 -0.2533146 8
4.522879 26.39896 -1.209929 6
7.045921 63.53088 -6.703245 12
4.527827 26.42781 -0.8368245 6
7.767074 70.0318 -6.396801 6
nan nan nan 0
11.41333 80.8199 -6.120156 17
0.6321694 7.79574 -3.630292 4
nan nan nan 0
nan nan nan 0
3.427593 42.14758 -5.674968 12
15.49022 109.5443 -5.196339 5
5.261465 64.69436 -6.921355 11
21.26654 150.0086 -4.998417 20
5.969145 73.07929 -6.785694 14
1.802882 12.73453 -3.687337 4
3.385607 30.34123 -0.633426 5
6.6545 81.29438 -6.387937 33
7.96038 56.09195 -6.801405 14
3.383776 30.27691 -0.2071331 10
7.695918 94.01579 -6.081213 18
3.751929 26.41451 -2.748652 30
2.461626 30.01206 -1.518361 5
3.780093 26.61265 -2.39102 11
2.475391 30.17986 -1.098469 3
2.18008 41.58824 -6.107219 11
0.4082724 17.92017 -0.2154425 4
-0.5696669 81.97997 -5.715855 12
2.724414 51.97478 -5.640916 11
0.4114289 17.92136 0.03434631 4
nan nan nan 0
3.101994 58.98247 -5.569387 9
nan nan nan 0
nan nan nan 0
-0.1182216 18.22866 -0.5050011 5
nan nan nan 0
-0.107728 16.64649 -3.030675 14
nan nan nan 0
6.274867 118.1434 -6.177783 15
-0.3332365 53.46102 -5.983253 11
nan nan nan 0
nan nan nan 0
nan nan nan 0
8.482535 159.1884 -3.867306 21
-0.418423 68.93331 -5.77347 10
nan nan nan 0
0.6370746 26.76679 -1.818147 5
-0.5973488 16.87537 -3.501736 8
1.338063 25.02022 0.09170288 10
0.5574005 26.7564 -1.442759 6
-0.6915162 18.01627 -2.050112 9
0.5578685 26.77892 -1.069663 5
-2.275231 59.0547 -5.884824 12
0.5622771 26.76616 -0.6954399 4
-2.617063 68.2215 -5.837878 11
0.3787754 18.00584 -2.923987 4
-0.2178315 25.26771 -0.3479352 4
-3.07818 80.59135 -5.764365 12
0.3803949 17.93366 -1.973193 3
-0.1513537 18.01041 0.003137229 8
-3.755075 98.29192 -5.652333 12
0.571532 26.76183 -2.569276 3
-0.6837706 18.06097 -0.7844024 10
0.5716037 26.76519 -2.193338 5
nan nan nan 0
2.648113 15.21048 -3.715076 5
nan nan nan 0
3.482037 30.6232 -2.363332 14
4.611283 26.47055 -3.128448 31
nan nan nan 0
3.476655 30.52844 -1.925456 11
4.577272 26.2484 -2.69811 28
3.51215 30.83998 -1.51089 10
4.575959 26.21386 -2.315607 17
nan nan nan 0
13.99209 80.11036 -5.955103 33
1.163635 10.21146 -3.642785 3
2.466769 29.25991 -0.6604184 4
nan nan nan 0
6.226787 54.49693 -6.876209 34
2.491249 29.55024 -0.2533146 10
20.34915 116.2578 -5.337246 17
nan nan nan 0
nan nan nan 0
8.317278 72.67575 -6.64104 9
nan nan nan 0
nan nan nan 0
nan nan nan 0
nan nan nan 0
nan nan nan 0
3.676924 43.34017 -5.837377 11
15.93844 109.9443 -5.217927 10
5.570068 65.65154 -7.025854 14
21.77925 149.8593 -4.995944 20
6.154462 72.23949 -6.709632 22
1.847323 12.72816 -3.687337 4
nan nan nan 0
6.954344 81.4594 -6.402778 33
3.938854 27.08463 -3.283519 5
3.466525 30.06623 -0.2057717 25
8.011314 93.83922 -6.07156 16
3.865624 26.5489 -2.764045 20
nan nan nan 0
3.870811 26.58451 -2.389689 14
2.593928 30.32537 -1.104094 5
2.325513 41.58531 -6.107944 10
0.7023402 26.75996 -0.3219595 5
-0.2834826 81.97647 -5.715507 11
2.856155 51.07656 -5.544412 11
0.6434222 24.34757 0.04669102 5
-0.3290624 100.0353 -5.573363 7
3.30396 58.90171 -5.562812 10
nan nan nan 0
nan nan nan 0
-0.05460675 18.23396 -0.5051398 6
nan nan nan 0
-0.04962024 16.64676 -3.030675 20
-0.5817489 18.0294 -0.2796707 3
nan nan nan 0
-0.1456909 53.12894 -5.945969 11
nan nan nan 0
nan nan nan 0
-0.1541058 59.88487 -5.85771 9
9.031354 159.038 -3.864394 16
-0.177107 68.67027 -5.751342 10
1.802621 31.63821 -0.3204396 11
0.7303684 26.75941 -1.817808 6
-0.5387536 16.88714 -3.503771 6
1.427098 25.04535 0.09181283 9
0.6509154 26.75928 -1.443028 6
-0.6286235 18.01858 -2.050112 3
0.6512198 26.77182 -1.069463 5
-2.06489 58.94294 -5.872926 10
0.6563156 26.78902 -0.6960899 4
-2.366043 67.86179 -5.806338 10
0.6698743 27.34381 -4.443787 5
-0.1293938 25.22332 -0.3473148 3
-2.793207 80.49694 -5.756876 13
0.4415251 17.8726 -1.966619 11
-0.1257123 25.36574 0.004420919 10
-3.412122 98.30942 -5.65262 11
0.6653147 26.77459 -2.570711 3
-0.6193411 18.02331 -0.7826645 12
0.6652751 26.773 -2.194156 5
nan nan nan 0
2.702042 15.20593 -3.716249 5
nan nan nan 0
9.28808 79.1988 -6.119019 11
4.744548 26.6841 -3.155663 30
nan nan nan 0
3.587273 30.55082 -1.927648 14
4.667996 26.22737 -2.697606 33
12.82875 109.2198 -5.357478 10
4.78635 26.86464 -2.374637 16
nan nan nan 0
4.777637 26.81577 -1.992828 8
1.199272 10.20734 -3.642785 4
16.72422 190.3996 -4.303244 12
16.83253 94.32797 -5.673743 7
6.405368 54.37632 -6.863762 30
2.595696 29.5563 -0.2534429 23
20.72761 116.0337 -5.330242 19
7.501512 63.58384 -6.714202 34
nan nan nan 0
8.214947 69.62971 -6.36514 11
32.77106 183.2561 -3.216393 17
nan nan nan 0
nan nan nan 0
nan nan nan 0
13.71003 92.30511 -5.689023 10
3.907577 44.22548 -5.958517 11
16.79183 113.0497 -5.368111 9
5.794386 65.57721 -7.020019 32
22.2691 149.5599 -4.988523 20
6.378869 71.90513 -6.68059 16
1.891741 12.72163 -3.687337 4
nan nan nan 0
7.255419 81.62328 -6.417619 13
4.034105 27.07562 -3.284116 23
3.568503 30.02913 -0.2056016 23
8.334848 93.76594 -6.068664 13
3.975896 26.65331 -2.776359 17
nan nan nan 0
3.959173 26.54128 -2.387027 11
nan nan nan 0
2.470952 41.58188 -6.108671 12
0.7961907 26.77234 -0.3221401 6
0.002670387 81.98194 -5.715855 11
3.029121 50.97696 -5.534708 11
0.7291532 24.37016 0.04673901 5
0.02012629 100.0259 -5.572807 7
3.572019 59.93829 -5.661913 9
nan nan nan 0
4.548966 76.11012 -6.118319 10
0.01153086 25.36629 -0.7031169 5
nan nan nan 0
0.00848811 16.64683 -3.030675 14
-0.5183765 18.01633 -0.2794377 4
6.818471 113.4215 -5.933144 14
0.03969865 53.03471 -5.935396 12
nan nan nan 0
nan nan nan 0
0.05477597 59.7059 -5.840177 11
1.928421 31.97863 -0.7764933 6
0.06201553 68.00282 -5.695395 10
1.914859 31.66167 -0.3207434 3
0.8236185 26.75171 -1.817468 6
-0.4961954 17.46144 -3.622801 17
nan nan nan 0
0.7440417 26.74686 -1.442489 4
-1.635388 51.86966 -5.908649 13
0.7445283 26.76439 -1.069264 5
-1.847341 58.57682 -5.835746 12
0.7494041 26.77158 -0.6956999 4
-2.118663 67.53603 -5.777781 10
1.060615 37.91315 -6.164299 8
-0.04129484 25.19362 -0.3469011 3
-2.51049 80.45137 -5.752953 12
0.5012565 17.77656 -1.956211 9
-0.03704286 25.28602 0.004406956 3
-3.066599 98.24589 -5.648316 8
0.5149316 18.1503 -1.741712 3
-0.5550278 17.98042 -0.7807094 3
0.7588671 26.77549 -2.194565 8
nan nan nan 0
2.755104 15.1964 -3.716249 5
27.87997 184.5836 -3.551134 17
9.667944 80.02214 -6.185231 20
4.870488 26.84818 -3.177086 30
nan nan nan 0
nan nan nan 0
4.874257 26.84228 -2.762675 16
3.714767 30.71059 -1.505779 4
4.880095 26.84777 -2.374637 28
3.729508 30.78735 -1.076308 4
4.870319 26.79403 -1.992463 10
1.235462 10.20777 -3.644461 3
2.727827 29.86423 -0.674489 11
17.67762 97.10199 -5.844339 15
6.499501 53.56563 -6.764188 32
2.699761 29.55702 -0.2535284 10
21.02504 115.3709 -5.303128 18
7.49842 61.70613 -6.518537 13
nan nan nan 0
8.41409 69.23975 -6.332123 9
33.3908 183.0323 -3.214493 17
4.035506 26.57598 -2.013746 19
0.7133563 7.78418 -3.628179 4
nan nan nan 0
14.09295 92.65634 -5.713678 16
4.177102 45.46498 -6.127582 10
nan nan nan 0
5.993689 65.23478 -6.98554 18
22.7835 149.4319 -4.986874 20
6.749179 73.17638 -6.800907 14
1.936136 12.71495 -3.687337 4
3.772302 30.86978 -0.6452638 5
7.440754 80.52036 -6.332869 13
4.129341 27.06628 -3.284712 13
3.688492 30.14056 -0.2064524 11
8.672663 93.85055 -6.076065 16
4.13654 27.08175 -2.822537 25
nan nan nan 0
4.048034 26.50268 -2.384809 12
nan nan nan 0
2.6136 41.5335 -6.102862 11
nan nan nan 0
nan nan nan 0
3.209543 51.00576 -5.539021 11
0.8218822 24.59734 0.04718058 5
0.3693182 100.0352 -5.573363 8
4.015668 63.64153 -6.013229 10
nan nan nan 0
4.92066 77.77003 -6.25316 11
0.1001908 25.39608 -0.7039493 5
nan nan nan 0
0.06657746 16.64178 -3.029777 25
-0.4557395 18.02802 -0.279593 4
nan nan nan 0
0.2248033 53.02928 -5.934839 11
-0.4592339 18.16513 -0.02848893 8
nan nan nan 0
0.2648165 60.07856 -5.876705 12
2.038763 31.95176 -0.7760082 9
nan nan nan 0
2.041963 31.91425 -0.3233753 10
0.9169945 26.74868 -1.817468 8
-0.4352406 17.46307 -3.622801 11
2.044927 31.96058 0.1172492 5
0.8375571 26.74909 -1.442759 8
-1.46074 52.10349 -5.934686 10
0.838105 26.76662 -1.069463 4
-1.644397 58.63762 -5.841199 10
nan nan nan 0
-1.884296 67.59281 -5.782044 11
1.194345 37.95361 -6.171524 6
0.04673482 25.24361 -0.3475905 23
-2.228125 80.4048 -5.74903 11
0.5625204 17.74987 -1.953472 10
0.05117406 25.261 0.004402593 4
-2.722391 98.21109 -5.645734 11
0.5795493 18.18819 -1.745538 3
nan nan nan 0
nan nan nan 0
nan nan nan 0
2.808133 15.18669 -3.716249 5
28.48515 184.2332 -3.546283 17
9.940445 79.93348 -6.181021 16
4.949709 26.75288 -3.167822 20
nan nan nan 0
nan nan nan 0
4.965205 26.81043 -2.761162 29
13.58722 109.0978 -5.356018 14
4.988319 26.90893 -2.381581 9
3.866022 31.0072 -1.084468 11
4.964728 26.78177 -1.992828 10
1.27167 10.20807 -3.646136 3
2.828751 29.81969 -0.673701 4
17.9955 96.92683 -5.837539 13
6.628022 53.07495 -6.705066 30
2.833142 29.86597 -0.2562651 6
19.67228 105.8534 -4.868639 12
nan nan nan 0
19.58872 105.4039 -3.349329 54
8.619267 68.91845 -6.305438 4
34.01944 182.8606 -3.213542 17
4.140509 26.64056 -2.01973 21
0.7409534 7.786154 -3.630292 4
nan nan nan 0
nan nan nan 0
4.5584 47.78348 -6.442414 32
17.54992 112.7323 -5.358724 56
6.15006 64.46611 -6.905441 32
23.29727 149.3021 -4.985225 20
6.721238 70.19363 -6.525699 10
1.980508 12.70811 -3.687337 4
3.875668 30.8217 -0.6445369 29
7.691311 80.17634 -6.307873 12
4.252149 27.23318 -3.306777 25
nan nan nan 0
9.015458 93.97865 -6.086362 8
4.221056 27.00327 -2.815867 11
2.968804 30.89435 -1.564999 11
4.138981 26.47855 -2.383922 9
nan nan nan 0
2.715941 40.88243 -6.00847 11
0.9066795 24.68268 -0.2970313 11
0.1282172 17.98199 -1.251789 20
3.386249 50.97441 -5.536864 12
0.9116039 24.69925 0.04738217 31
0.72054 100.3178 -5.589222 8
4.402187 66.09567 -6.246657 5
0.9216423 128.4209 -5.358632 9
nan nan nan 0
0.1891322 25.43556 -0.7050592 5
nan nan nan 0
0.1245956 16.63161 -3.027982 14
-0.553201 25.32186 -0.3929059 4
nan nan nan 0
0.4099087 53.02817 -5.934839 10
nan nan nan 0
2.042665 30.34527 -1.161692 9
0.4747237 60.10215 -5.87914 12
2.147262 31.89956 -0.7749166 32
0.1440323 17.99752 -1.505161 10
2.155035 31.93187 -0.3236284 17
nan nan nan 0
-0.3742804 17.46448 -3.622801 20
2.155131 31.93329 0.1171759 25
nan nan nan 0
-1.279345 52.12813 -5.93695 10
nan nan nan 0
-1.435173 58.45897 -5.822857 10
nan nan nan 0
-1.652237 67.75834 -5.795682 10
1.32751 37.96894 -6.174736 9
0.1346679 25.2083 -0.3471079 12
-1.945874 80.34727 -5.744395 12
0.6241269 17.73786 -1.952376 9
nan nan nan 0
-2.377616 98.14014 -5.641142 8
nan nan nan 0
nan nan nan 0
2.361348 66.90466 -5.489273 10
-0.603635 25.21277 -0.7430491 3
2.861127 15.1768 -3.716249 5
29.08901 183.8858 -3.541527 26
10.27064 80.29884 -6.212021 34
5.044907 26.7452 -3.16898 12
nan nan nan 0
12.27616 95.84319 -6.060022 11
5.069844 26.85159 -2.767215 17
13.98256 109.1637 -5.361616 10
5.093327 26.95009 -2.38679 12
nan nan nan 0
nan nan nan 0
1.305496 10.18955 -3.641109 3
nan nan nan 0
18.3133 96.75554 -5.831035 23
6.82589 53.1499 -6.717513 32
2.927584 29.75638 -0.2554099 9
19.96819 105.3964 -4.850789 18
7.845912 61.00618 -6.450184 8
19.91652 105.1237 -3.342613 21
9.221271 71.69812 -6.562793 15
34.63611 182.6278 -3.211556 17
4.223292 26.56193 -2.014868 21
0.7672369 7.7745 -3.626066 4
nan nan nan 0
nan nan nan 0
4.738828 47.90535 -6.461051 13
nan nan nan 0
6.359389 64.28593 -6.888467 25
nan nan nan 0
6.848657 68.98564 -6.415524 10
2.024856 12.70112 -3.687337 4
3.970407 30.70883 -0.6424601 29
3.054904 30.72012 -2.415981 12
4.340917 27.17896 -3.302006 20
3.74597 28.93396 -0.1983522 25
nan nan nan 0
nan nan nan 0
3.088509 31.00306 -1.571049 14
4.226663 26.43443 -2.381261 9
3.061174 30.72871 -1.120246 12
2.800657 40.04363 -5.886485 10
0.993234 24.68935 -0.2971517 11
0.1908808 17.97145 -1.251093 3
3.664025 52.3904 -5.692133 10
1.001442 24.78584 0.04755495 11
1.071135 100.3546 -5.591449 8
4.76829 68.01155 -6.42936 11
1.370814 128.5019 -5.362176 6
5.723774 81.43769 -6.551254 11
0.2783504 25.47473 -0.7061691 6
6.57394 93.53497 -6.209093 16
0.1828097 16.64583 -3.030675 25
-0.4658253 25.37862 -0.3937602 8
7.878829 111.5458 -5.838992 17
0.5950646 53.03139 -5.935396 8
-0.4623663 25.19168 -0.03952475 4
2.233973 31.54405 -1.20793 9
0.6829922 59.96577 -5.86599 6
2.259305 31.90184 -0.7751592 10
0.2065719 17.972 -1.503073 3
2.262591 31.86929 -0.3230716 12
nan nan nan 0
-0.3132268 17.46079 -3.621784 14
2.262338 31.86572 0.116956 9
nan nan nan 0
-1.097166 52.12234 -5.935818 10
nan nan nan 0
-0.3787134 18.10749 -1.800991 5
nan nan nan 0
-1.422487 68.08743 -5.823386 12
1.461364 37.99859 -6.180356 10
nan nan nan 0
-1.660736 80.1292 -5.728346 12
2.083934 53.95906 -5.948064 12
0.1623269 17.93532 0.003124139 3
-0.3710379 18.04241 -1.035314 3
2.330031 60.06411 -5.773815 9
nan nan nan 0
2.565919 66.14909 -5.427949 11
-0.5161369 25.23971 -0.7437864 3
2.913169 15.16195 -3.715076 5
29.70118 183.6005 -3.538008 23
10.43325 79.36787 -6.142748 24
nan nan nan 0
nan nan nan 0
12.60543 95.76018 -6.057517 7
5.152255 26.77511 -2.761162 10
14.02326 106.5296 -5.234572 9
5.189255 26.94193 -2.387658 8
nan nan nan 0
15.97418 82.8947 -6.181968 12
1.341057 10.18493 -3.641109 3
2.377906 23.33436 -0.5273666 3
18.65566 96.71552 -5.832513 13
6.905546 52.32405 -6.616072 26
3.106978 30.48712 -0.2617813 14
20.33503 105.3211 -4.850563 18
nan nan nan 0
20.29472 105.1124 -3.344487 18
9.41798 71.2607 -6.525705 11
nan nan nan 0
4.309579 26.50766 -2.011876 23
0.7962146 7.789807 -3.634518 4
nan nan nan 0
4.303059 26.43846 -1.631436 5
5.190888 50.66887 -6.836453 12
4.300682 26.42386 -1.256142 10
6.581722 64.24355 -6.886344 21
4.304261 26.38777 -0.8810843 11
7.489636 72.85406 -6.777857 12
2.069179 12.69398 -3.687337 4
4.065064 30.60064 -0.6404871 10
3.167225 30.75886 -2.419886 5
4.435763 27.16364 -3.302006 14
3.844308 28.90088 -0.1982161 10
3.165742 30.74446 -1.990923 6
4.303488 26.32524 -2.748138 13
3.210547 31.1262 -1.577855 11
4.31489 26.39495 -2.379042 10
3.16124 30.64825 -1.117705 6
2.881 39.22449 -5.767405 9
1.078974 24.67575 -0.2970313 9
0.2528457 17.91582 -1.247266 4
4.035824 54.95023 -5.971941 11
1.088393 24.79219 0.04757415 10
0.2564764 17.95141 -0.9985923 11
5.17669 70.31786 -6.649167 11
0.2561545 17.92864 -0.7468723 5
6.015712 81.52161 -6.559657 30
0.2592648 17.92728 -0.4966769 4
6.883511 93.28259 -6.19389 15
0.2407022 16.63034 -3.027982 12
-0.3759588 25.29511 -0.3924399 4
nan nan nan 0
0.2671257 18.03653 -2.01612 8
-0.3836589 25.80807 -0.04049088 4
2.235209 30.07117 -1.151756 10
0.2691888 17.96336 -1.754829 10
nan nan nan 0
0.2684916 17.91636 -1.49848 4
2.373822 31.8612 -0.3230716 17
nan nan nan 0
-0.2522754 17.46177 -3.621784 12
nan nan nan 0
nan nan nan 0
-0.9151307 52.12089 -5.935252 10
nan nan nan 0
-0.3138379 18.01419 -1.791572 5
nan nan nan 0
-1.182723 67.97246 -5.813158 12
1.594822 38.01298 -6.183567 10
0.2218419 17.93798 -0.2468706 6
-1.382747 80.23425 -5.735479 14
2.27708 54.06567 -5.960664 11
0.2249938 17.93964 0.003125012 6
-0.3077972 18.02862 -1.034453 12
2.470749 58.42458 -5.616912 10
nan nan nan 0
2.796386 66.12977 -5.427132 11
-0.4302533 25.37128 -0.7476203 3
2.967946 15.16123 -3.717421 5
4.357837 26.36854 -0.5078211 23
10.88635 80.63525 -6.243788 24
nan nan nan 0
4.40482 26.62378 -0.1364094 7
12.27836 90.82479 -5.747879 13
5.245686 26.75696 -2.761162 9
14.42179 106.678 -5.244308 15
5.276549 26.88943 -2.384619 5
4.17308 30.83627 -1.079954 4
16.24903 82.76502 -6.176487 15
1.3766 10.18019 -3.641109 3
2.45515 23.28615 -0.5264662 3
19.2338 97.87419 -5.906428 8
7.074153 52.19638 -6.603003 32
3.218623 30.52581 -0.2622089 5
20.70061 105.2397 -4.850111 43
3.639816 26.82689 -2.836891 5
20.68465 105.1586 -3.348235 21
3.593887 26.48853 -2.424751 11
nan nan nan 0
4.381639 26.36949 -2.002525 36
0.8224477 7.777967 -3.630292 4
nan nan nan 0
4.383849 26.35435 -1.627174 6
5.530679 52.18794 -7.044123 13
4.392072 26.40376 -1.255907 23
6.804362 64.20535 -6.884753 12
4.398811 26.38737 -0.8815789 37
7.749163 72.87698 -6.782467 10
2.113476 12.68668 -3.687337 4
4.1678 30.55654 -0.6398641 10
3.266127 30.66831 -2.413637 8
